ply
format ascii 1.0
element vertex 1328
property float x
property float y
property float z
property uchar red
property uchar green
property uchar blue
property uchar alpha
end_header
0.060567 -0.142200 0.237000 0 0 0 0
0.062933 -0.141600 0.236000 0 0 0 0
0.065278 -0.141000 0.235000 0 0 0 0
0.067889 -0.141000 0.235000 0 0 0 0
0.070200 -0.140400 0.234000 0 0 0 0
0.072489 -0.139800 0.233000 0 0 0 0
0.074756 -0.139200 0.232000 0 0 0 0
0.077000 -0.138600 0.231000 0 0 0 0
0.079222 -0.138000 0.230000 0 0 0 0
0.081067 -0.136800 0.228000 0 0 0 0
0.083233 -0.136200 0.227000 0 0 0 0
0.084244 -0.133800 0.223000 0 0 0 0
0.085944 -0.132600 0.221000 0 0 0 0
0.088000 -0.132000 0.220000 0 0 0 0
0.090444 -0.132000 0.220000 0 0 0 0
0.092467 -0.131400 0.219000 0 0 0 0
0.094900 -0.131400 0.219000 0 0 0 0
0.097333 -0.131400 0.219000 0 0 0 0
0.099767 -0.131400 0.219000 0 0 0 0
0.101733 -0.130800 0.218000 0 0 0 0
0.104156 -0.130800 0.218000 0 0 0 0
0.106578 -0.130800 0.218000 0 0 0 0
0.109000 -0.130800 0.218000 0 0 0 0
0.111422 -0.130800 0.218000 0 0 0 0
0.113844 -0.130800 0.218000 0 0 0 0
0.115733 -0.130200 0.217000 0 0 0 0
0.118144 -0.130200 0.217000 0 0 0 0
0.120556 -0.130200 0.217000 0 0 0 0
0.122967 -0.130200 0.217000 0 0 0 0
0.124800 -0.129600 0.216000 0 0 0 0
0.127200 -0.129600 0.216000 0 0 0 0
0.129600 -0.129600 0.216000 0 0 0 0
0.132000 -0.129600 0.216000 0 0 0 0
0.133778 -0.129000 0.215000 0 0 0 0
0.136167 -0.129000 0.215000 0 0 0 0
0.137911 -0.128400 0.214000 0 0 0 0
0.140289 -0.128400 0.214000 0 0 0 0
0.142000 -0.127800 0.213000 0 0 0 0
0.143689 -0.127200 0.212000 0 0 0 0
0.146044 -0.127200 0.212000 0 0 0 0
0.147700 -0.126600 0.211000 0 0 0 0
0.149333 -0.126000 0.210000 0 0 0 0
0.150222 -0.124800 0.208000 0 0 0 0
0.151800 -0.124200 0.207000 0 0 0 0
0.153356 -0.123600 0.206000 0 0 0 0
0.154133 -0.122400 0.204000 0 0 0 0
0.013056 -0.138389 0.235000 0 0 0 0
0.015733 -0.138978 0.236000 0 0 0 0
0.018356 -0.138978 0.236000 0 0 0 0
0.021067 -0.139567 0.237000 0 0 0 0
0.023700 -0.139567 0.237000 0 0 0 0
0.026444 -0.140156 0.238000 0 0 0 0
0.029089 -0.140156 0.238000 0 0 0 0
0.031733 -0.140156 0.238000 0 0 0 0
0.034378 -0.140156 0.238000 0 0 0 0
0.037022 -0.140156 0.238000 0 0 0 0
0.039667 -0.140156 0.238000 0 0 0 0
0.042489 -0.140744 0.239000 0 0 0 0
0.044956 -0.140156 0.238000 0 0 0 0
0.047600 -0.140156 0.238000 0 0 0 0
0.050244 -0.140156 0.238000 0 0 0 0
0.052889 -0.140156 0.238000 0 0 0 0
0.055300 -0.139567 0.237000 0 0 0 0
0.057933 -0.139567 0.237000 0 0 0 0
0.060567 -0.139567 0.237000 0 0 0 0
0.062933 -0.138978 0.236000 0 0 0 0
0.065278 -0.138389 0.235000 0 0 0 0
0.067600 -0.137800 0.234000 0 0 0 0
0.070200 -0.137800 0.234000 0 0 0 0
0.072489 -0.137211 0.233000 0 0 0 0
0.074756 -0.136622 0.232000 0 0 0 0
0.077000 -0.136033 0.231000 0 0 0 0
0.079222 -0.135444 0.230000 0 0 0 0
0.081422 -0.134856 0.229000 0 0 0 0
0.083233 -0.133678 0.227000 0 0 0 0
0.085000 -0.132500 0.225000 0 0 0 0
0.086333 -0.130733 0.222000 0 0 0 0
0.088000 -0.129556 0.220000 0 0 0 0
0.090444 -0.129556 0.220000 0 0 0 0
0.092467 -0.128967 0.219000 0 0 0 0
0.094900 -0.128967 0.219000 0 0 0 0
0.097333 -0.128967 0.219000 0 0 0 0
0.099767 -0.128967 0.219000 0 0 0 0
0.102200 -0.128967 0.219000 0 0 0 0
0.104156 -0.128378 0.218000 0 0 0 0
0.106578 -0.128378 0.218000 0 0 0 0
0.109000 -0.128378 0.218000 0 0 0 0
0.111422 -0.128378 0.218000 0 0 0 0
0.113844 -0.128378 0.218000 0 0 0 0
0.116267 -0.128378 0.218000 0 0 0 0
0.118144 -0.127789 0.217000 0 0 0 0
0.120556 -0.127789 0.217000 0 0 0 0
0.122967 -0.127789 0.217000 0 0 0 0
0.125378 -0.127789 0.217000 0 0 0 0
0.127200 -0.127200 0.216000 0 0 0 0
0.129600 -0.127200 0.216000 0 0 0 0
0.132000 -0.127200 0.216000 0 0 0 0
0.133778 -0.126611 0.215000 0 0 0 0
0.136167 -0.126611 0.215000 0 0 0 0
0.137911 -0.126022 0.214000 0 0 0 0
0.140289 -0.126022 0.214000 0 0 0 0
0.142000 -0.125433 0.213000 0 0 0 0
0.144367 -0.125433 0.213000 0 0 0 0
0.146044 -0.124844 0.212000 0 0 0 0
0.147700 -0.124256 0.211000 0 0 0 0
0.149333 -0.123667 0.210000 0 0 0 0
0.150944 -0.123078 0.209000 0 0 0 0
0.151800 -0.121900 0.207000 0 0 0 0
0.153356 -0.121311 0.206000 0 0 0 0
0.154133 -0.120133 0.204000 0 0 0 0
0.154867 -0.118956 0.202000 0 0 0 0
0.155556 -0.117778 0.200000 0 0 0 0
0.018356 -0.136356 0.236000 0 0 0 0
0.021067 -0.136933 0.237000 0 0 0 0
0.023700 -0.136933 0.237000 0 0 0 0
0.026333 -0.136933 0.237000 0 0 0 0
0.029089 -0.137511 0.238000 0 0 0 0
0.031733 -0.137511 0.238000 0 0 0 0
0.034378 -0.137511 0.238000 0 0 0 0
0.037022 -0.137511 0.238000 0 0 0 0
0.039667 -0.137511 0.238000 0 0 0 0
0.042311 -0.137511 0.238000 0 0 0 0
0.044956 -0.137511 0.238000 0 0 0 0
0.047600 -0.137511 0.238000 0 0 0 0
0.050244 -0.137511 0.238000 0 0 0 0
0.052889 -0.137511 0.238000 0 0 0 0
0.055300 -0.136933 0.237000 0 0 0 0
0.057933 -0.136933 0.237000 0 0 0 0
0.060311 -0.136356 0.236000 0 0 0 0
0.062933 -0.136356 0.236000 0 0 0 0
0.065278 -0.135778 0.235000 0 0 0 0
0.067600 -0.135200 0.234000 0 0 0 0
0.069900 -0.134622 0.233000 0 0 0 0
0.072178 -0.134044 0.232000 0 0 0 0
0.074756 -0.134044 0.232000 0 0 0 0
0.077000 -0.133467 0.231000 0 0 0 0
0.079222 -0.132889 0.230000 0 0 0 0
0.081422 -0.132311 0.229000 0 0 0 0
0.083600 -0.131733 0.228000 0 0 0 0
0.085378 -0.130578 0.226000 0 0 0 0
0.086722 -0.128844 0.223000 0 0 0 0
0.088400 -0.127689 0.221000 0 0 0 0
0.090444 -0.127111 0.220000 0 0 0 0
0.092889 -0.127111 0.220000 0 0 0 0
0.094900 -0.126533 0.219000 0 0 0 0
0.097333 -0.126533 0.219000 0 0 0 0
0.099767 -0.126533 0.219000 0 0 0 0
0.102200 -0.126533 0.219000 0 0 0 0
0.104633 -0.126533 0.219000 0 0 0 0
0.107067 -0.126533 0.219000 0 0 0 0
0.109000 -0.125956 0.218000 0 0 0 0
0.111422 -0.125956 0.218000 0 0 0 0
0.113844 -0.125956 0.218000 0 0 0 0
0.116267 -0.125956 0.218000 0 0 0 0
0.118689 -0.125956 0.218000 0 0 0 0
0.120556 -0.125378 0.217000 0 0 0 0
0.122967 -0.125378 0.217000 0 0 0 0
0.125378 -0.125378 0.217000 0 0 0 0
0.127789 -0.125378 0.217000 0 0 0 0
0.129600 -0.124800 0.216000 0 0 0 0
0.132000 -0.124800 0.216000 0 0 0 0
0.134400 -0.124800 0.216000 0 0 0 0
0.136167 -0.124222 0.215000 0 0 0 0
0.138556 -0.124222 0.215000 0 0 0 0
0.140289 -0.123644 0.214000 0 0 0 0
0.142667 -0.123644 0.214000 0 0 0 0
0.144367 -0.123067 0.213000 0 0 0 0
0.146044 -0.122489 0.212000 0 0 0 0
0.147700 -0.121911 0.211000 0 0 0 0
0.149333 -0.121333 0.210000 0 0 0 0
0.150944 -0.120756 0.209000 0 0 0 0
0.151800 -0.119600 0.207000 0 0 0 0
0.153356 -0.119022 0.206000 0 0 0 0
0.154133 -0.117867 0.204000 0 0 0 0
0.154867 -0.116711 0.202000 0 0 0 0
0.155556 -0.115556 0.200000 0 0 0 0
0.154622 -0.113244 0.196000 0 0 0 0
0.140000 -0.101111 0.175000 0 0 0 0
0.106256 -0.075689 0.131000 0 0 0 0
0.020978 -0.133733 0.236000 0 0 0 0
0.023700 -0.134300 0.237000 0 0 0 0
0.026333 -0.134300 0.237000 0 0 0 0
0.029089 -0.134867 0.238000 0 0 0 0
0.031733 -0.134867 0.238000 0 0 0 0
0.034378 -0.134867 0.238000 0 0 0 0
0.037022 -0.134867 0.238000 0 0 0 0
0.039667 -0.134867 0.238000 0 0 0 0
0.042311 -0.134867 0.238000 0 0 0 0
0.044956 -0.134867 0.238000 0 0 0 0
0.047600 -0.134867 0.238000 0 0 0 0
0.050244 -0.134867 0.238000 0 0 0 0
0.052667 -0.134300 0.237000 0 0 0 0
0.055300 -0.134300 0.237000 0 0 0 0
0.057689 -0.133733 0.236000 0 0 0 0
0.060311 -0.133733 0.236000 0 0 0 0
0.062667 -0.133167 0.235000 0 0 0 0
0.065000 -0.132600 0.234000 0 0 0 0
0.067311 -0.132033 0.233000 0 0 0 0
0.069900 -0.132033 0.233000 0 0 0 0
0.072178 -0.131467 0.232000 0 0 0 0
0.074756 -0.131467 0.232000 0 0 0 0
0.077000 -0.130900 0.231000 0 0 0 0
0.079222 -0.130333 0.230000 0 0 0 0
0.081422 -0.129767 0.229000 0 0 0 0
0.083600 -0.129200 0.228000 0 0 0 0
0.085756 -0.128633 0.227000 0 0 0 0
0.087111 -0.126933 0.224000 0 0 0 0
0.088400 -0.125233 0.221000 0 0 0 0
0.090444 -0.124667 0.220000 0 0 0 0
0.092889 -0.124667 0.220000 0 0 0 0
0.094900 -0.124100 0.219000 0 0 0 0
0.097333 -0.124100 0.219000 0 0 0 0
0.099767 -0.124100 0.219000 0 0 0 0
0.102200 -0.124100 0.219000 0 0 0 0
0.104633 -0.124100 0.219000 0 0 0 0
0.107067 -0.124100 0.219000 0 0 0 0
0.109500 -0.124100 0.219000 0 0 0 0
0.111422 -0.123533 0.218000 0 0 0 0
0.113844 -0.123533 0.218000 0 0 0 0
0.116267 -0.123533 0.218000 0 0 0 0
0.118689 -0.123533 0.218000 0 0 0 0
0.121111 -0.123533 0.218000 0 0 0 0
0.122967 -0.122967 0.217000 0 0 0 0
0.125378 -0.122967 0.217000 0 0 0 0
0.127789 -0.122967 0.217000 0 0 0 0
0.130200 -0.122967 0.217000 0 0 0 0
0.132000 -0.122400 0.216000 0 0 0 0
0.134400 -0.122400 0.216000 0 0 0 0
0.136167 -0.121833 0.215000 0 0 0 0
0.138556 -0.121833 0.215000 0 0 0 0
0.140289 -0.121267 0.214000 0 0 0 0
0.142667 -0.121267 0.214000 0 0 0 0
0.144367 -0.120700 0.213000 0 0 0 0
0.146044 -0.120133 0.212000 0 0 0 0
0.147700 -0.119567 0.211000 0 0 0 0
0.149333 -0.119000 0.210000 0 0 0 0
0.150944 -0.118433 0.209000 0 0 0 0
0.151800 -0.117300 0.207000 0 0 0 0
0.153356 -0.116733 0.206000 0 0 0 0
0.154133 -0.115600 0.204000 0 0 0 0
0.154100 -0.113900 0.201000 0 0 0 0
0.154778 -0.112767 0.199000 0 0 0 0
0.153833 -0.110500 0.195000 0 0 0 0
0.133600 -0.094633 0.167000 0 0 0 0
0.105444 -0.073667 0.130000 0 0 0 0
0.023600 -0.131111 0.236000 0 0 0 0
0.026333 -0.131667 0.237000 0 0 0 0
0.028967 -0.131667 0.237000 0 0 0 0
0.031733 -0.132222 0.238000 0 0 0 0
0.034378 -0.132222 0.238000 0 0 0 0
0.037022 -0.132222 0.238000 0 0 0 0
0.039667 -0.132222 0.238000 0 0 0 0
0.042311 -0.132222 0.238000 0 0 0 0
0.044956 -0.132222 0.238000 0 0 0 0
0.047400 -0.131667 0.237000 0 0 0 0
0.050033 -0.131667 0.237000 0 0 0 0
0.052667 -0.131667 0.237000 0 0 0 0
0.055067 -0.131111 0.236000 0 0 0 0
0.057689 -0.131111 0.236000 0 0 0 0
0.060056 -0.130556 0.235000 0 0 0 0
0.062667 -0.130556 0.235000 0 0 0 0
0.065000 -0.130000 0.234000 0 0 0 0
0.067311 -0.129444 0.233000 0 0 0 0
0.069600 -0.128889 0.232000 0 0 0 0
0.072178 -0.128889 0.232000 0 0 0 0
0.074433 -0.128333 0.231000 0 0 0 0
0.077000 -0.128333 0.231000 0 0 0 0
0.079222 -0.127778 0.230000 0 0 0 0
0.081422 -0.127222 0.229000 0 0 0 0
0.083600 -0.126667 0.228000 0 0 0 0
0.085756 -0.126111 0.227000 0 0 0 0
0.087111 -0.124444 0.224000 0 0 0 0
0.088400 -0.122778 0.221000 0 0 0 0
0.090444 -0.122222 0.220000 0 0 0 0
0.092889 -0.122222 0.220000 0 0 0 0
0.095333 -0.122222 0.220000 0 0 0 0
0.097333 -0.121667 0.219000 0 0 0 0
0.099767 -0.121667 0.219000 0 0 0 0
0.102200 -0.121667 0.219000 0 0 0 0
0.104633 -0.121667 0.219000 0 0 0 0
0.107067 -0.121667 0.219000 0 0 0 0
0.109500 -0.121667 0.219000 0 0 0 0
0.111933 -0.121667 0.219000 0 0 0 0
0.113844 -0.121111 0.218000 0 0 0 0
0.116267 -0.121111 0.218000 0 0 0 0
0.118689 -0.121111 0.218000 0 0 0 0
0.121111 -0.121111 0.218000 0 0 0 0
0.122967 -0.120556 0.217000 0 0 0 0
0.125378 -0.120556 0.217000 0 0 0 0
0.127789 -0.120556 0.217000 0 0 0 0
0.130200 -0.120556 0.217000 0 0 0 0
0.132000 -0.120000 0.216000 0 0 0 0
0.134400 -0.120000 0.216000 0 0 0 0
0.136800 -0.120000 0.216000 0 0 0 0
0.138556 -0.119444 0.215000 0 0 0 0
0.140289 -0.118889 0.214000 0 0 0 0
0.142667 -0.118889 0.214000 0 0 0 0
0.144367 -0.118333 0.213000 0 0 0 0
0.146044 -0.117778 0.212000 0 0 0 0
0.147700 -0.117222 0.211000 0 0 0 0
0.149333 -0.116667 0.210000 0 0 0 0
0.150944 -0.116111 0.209000 0 0 0 0
0.151800 -0.115000 0.207000 0 0 0 0
0.152611 -0.113889 0.205000 0 0 0 0
0.153378 -0.112778 0.203000 0 0 0 0
0.154100 -0.111667 0.201000 0 0 0 0
0.154000 -0.110000 0.198000 0 0 0 0
0.153044 -0.107778 0.194000 0 0 0 0
0.125600 -0.087222 0.157000 0 0 0 0
0.106256 -0.072778 0.131000 0 0 0 0
0.028967 -0.129033 0.237000 0 0 0 0
0.031600 -0.129033 0.237000 0 0 0 0
0.034233 -0.129033 0.237000 0 0 0 0
0.036867 -0.129033 0.237000 0 0 0 0
0.039500 -0.129033 0.237000 0 0 0 0
0.042133 -0.129033 0.237000 0 0 0 0
0.044767 -0.129033 0.237000 0 0 0 0
0.047400 -0.129033 0.237000 0 0 0 0
0.050033 -0.129033 0.237000 0 0 0 0
0.052444 -0.128489 0.236000 0 0 0 0
0.055067 -0.128489 0.236000 0 0 0 0
0.057444 -0.127944 0.235000 0 0 0 0
0.059800 -0.127400 0.234000 0 0 0 0
0.062133 -0.126856 0.233000 0 0 0 0
0.064444 -0.126311 0.232000 0 0 0 0
0.067022 -0.126311 0.232000 0 0 0 0
0.069300 -0.125767 0.231000 0 0 0 0
0.071867 -0.125767 0.231000 0 0 0 0
0.074433 -0.125767 0.231000 0 0 0 0
0.076667 -0.125222 0.230000 0 0 0 0
0.078878 -0.124678 0.229000 0 0 0 0
0.081422 -0.124678 0.229000 0 0 0 0
0.083600 -0.124133 0.228000 0 0 0 0
0.085756 -0.123589 0.227000 0 0 0 0
0.087111 -0.121956 0.224000 0 0 0 0
0.088800 -0.120867 0.222000 0 0 0 0
0.090856 -0.120322 0.221000 0 0 0 0
0.092889 -0.119778 0.220000 0 0 0 0
0.095333 -0.119778 0.220000 0 0 0 0
0.097778 -0.119778 0.220000 0 0 0 0
0.099767 -0.119233 0.219000 0 0 0 0
0.102200 -0.119233 0.219000 0 0 0 0
0.104633 -0.119233 0.219000 0 0 0 0
0.107067 -0.119233 0.219000 0 0 0 0
0.109500 -0.119233 0.219000 0 0 0 0
0.111933 -0.119233 0.219000 0 0 0 0
0.113844 -0.118689 0.218000 0 0 0 0
0.116267 -0.118689 0.218000 0 0 0 0
0.118689 -0.118689 0.218000 0 0 0 0
0.121111 -0.118689 0.218000 0 0 0 0
0.123533 -0.118689 0.218000 0 0 0 0
0.125378 -0.118144 0.217000 0 0 0 0
0.127789 -0.118144 0.217000 0 0 0 0
0.130200 -0.118144 0.217000 0 0 0 0
0.132000 -0.117600 0.216000 0 0 0 0
0.134400 -0.117600 0.216000 0 0 0 0
0.136800 -0.117600 0.216000 0 0 0 0
0.138556 -0.117056 0.215000 0 0 0 0
0.140289 -0.116511 0.214000 0 0 0 0
0.142667 -0.116511 0.214000 0 0 0 0
0.144367 -0.115967 0.213000 0 0 0 0
0.146044 -0.115422 0.212000 0 0 0 0
0.147700 -0.114878 0.211000 0 0 0 0
0.149333 -0.114333 0.210000 0 0 0 0
0.150944 -0.113789 0.209000 0 0 0 0
0.151800 -0.112700 0.207000 0 0 0 0
0.152611 -0.111611 0.205000 0 0 0 0
0.153378 -0.110522 0.203000 0 0 0 0
0.153333 -0.108889 0.200000 0 0 0 0
0.153222 -0.107256 0.197000 0 0 0 0
0.152256 -0.105078 0.193000 0 0 0 0
0.120000 -0.081667 0.150000 0 0 0 0
0.106256 -0.071322 0.131000 0 0 0 0
0.066600 -0.044100 0.081000 0 0 0 0
0.034233 -0.126400 0.237000 0 0 0 0
0.036867 -0.126400 0.237000 0 0 0 0
0.039500 -0.126400 0.237000 0 0 0 0
0.042133 -0.126400 0.237000 0 0 0 0
0.044767 -0.126400 0.237000 0 0 0 0
0.047200 -0.125867 0.236000 0 0 0 0
0.049822 -0.125867 0.236000 0 0 0 0
0.052444 -0.125867 0.236000 0 0 0 0
0.054833 -0.125333 0.235000 0 0 0 0
0.057200 -0.124800 0.234000 0 0 0 0
0.059544 -0.124267 0.233000 0 0 0 0
0.061867 -0.123733 0.232000 0 0 0 0
0.064167 -0.123200 0.231000 0 0 0 0
0.066733 -0.123200 0.231000 0 0 0 0
0.069000 -0.122667 0.230000 0 0 0 0
0.071556 -0.122667 0.230000 0 0 0 0
0.074111 -0.122667 0.230000 0 0 0 0
0.076333 -0.122133 0.229000 0 0 0 0
0.078878 -0.122133 0.229000 0 0 0 0
0.081067 -0.121600 0.228000 0 0 0 0
0.083233 -0.121067 0.227000 0 0 0 0
0.085378 -0.120533 0.226000 0 0 0 0
0.087111 -0.119467 0.224000 0 0 0 0
0.088800 -0.118400 0.222000 0 0 0 0
0.090856 -0.117867 0.221000 0 0 0 0
0.092889 -0.117333 0.220000 0 0 0 0
0.095333 -0.117333 0.220000 0 0 0 0
0.097778 -0.117333 0.220000 0 0 0 0
0.099767 -0.116800 0.219000 0 0 0 0
0.102200 -0.116800 0.219000 0 0 0 0
0.104633 -0.116800 0.219000 0 0 0 0
0.107067 -0.116800 0.219000 0 0 0 0
0.109500 -0.116800 0.219000 0 0 0 0
0.111933 -0.116800 0.219000 0 0 0 0
0.114367 -0.116800 0.219000 0 0 0 0
0.116267 -0.116267 0.218000 0 0 0 0
0.118689 -0.116267 0.218000 0 0 0 0
0.121111 -0.116267 0.218000 0 0 0 0
0.123533 -0.116267 0.218000 0 0 0 0
0.125378 -0.115733 0.217000 0 0 0 0
0.127789 -0.115733 0.217000 0 0 0 0
0.130200 -0.115733 0.217000 0 0 0 0
0.132000 -0.115200 0.216000 0 0 0 0
0.134400 -0.115200 0.216000 0 0 0 0
0.136800 -0.115200 0.216000 0 0 0 0
0.138556 -0.114667 0.215000 0 0 0 0
0.140289 -0.114133 0.214000 0 0 0 0
0.142667 -0.114133 0.214000 0 0 0 0
0.144367 -0.113600 0.213000 0 0 0 0
0.146044 -0.113067 0.212000 0 0 0 0
0.147700 -0.112533 0.211000 0 0 0 0
0.149333 -0.112000 0.210000 0 0 0 0
0.150222 -0.110933 0.208000 0 0 0 0
0.151800 -0.110400 0.207000 0 0 0 0
0.152611 -0.109333 0.205000 0 0 0 0
0.152622 -0.107733 0.202000 0 0 0 0
0.153333 -0.106667 0.200000 0 0 0 0
0.153222 -0.105067 0.197000 0 0 0 0
0.148311 -0.100267 0.188000 0 0 0 0
0.113600 -0.075733 0.142000 0 0 0 0
0.106256 -0.069867 0.131000 0 0 0 0
0.069889 -0.045333 0.085000 0 0 0 0
0.036711 -0.123244 0.236000 0 0 0 0
0.039333 -0.123244 0.236000 0 0 0 0
0.041956 -0.123244 0.236000 0 0 0 0
0.044578 -0.123244 0.236000 0 0 0 0
0.047200 -0.123244 0.236000 0 0 0 0
0.049611 -0.122722 0.235000 0 0 0 0
0.052222 -0.122722 0.235000 0 0 0 0
0.054600 -0.122200 0.234000 0 0 0 0
0.056711 -0.121156 0.232000 0 0 0 0
0.059033 -0.120633 0.231000 0 0 0 0
0.061600 -0.120633 0.231000 0 0 0 0
0.063889 -0.120111 0.230000 0 0 0 0
0.066444 -0.120111 0.230000 0 0 0 0
0.068700 -0.119589 0.229000 0 0 0 0
0.071244 -0.119589 0.229000 0 0 0 0
0.073789 -0.119589 0.229000 0 0 0 0
0.076000 -0.119067 0.228000 0 0 0 0
0.078533 -0.119067 0.228000 0 0 0 0
0.080711 -0.118544 0.227000 0 0 0 0
0.082867 -0.118022 0.226000 0 0 0 0
0.085000 -0.117500 0.225000 0 0 0 0
0.087111 -0.116978 0.224000 0 0 0 0
0.088800 -0.115933 0.222000 0 0 0 0
0.090856 -0.115411 0.221000 0 0 0 0
0.092889 -0.114889 0.220000 0 0 0 0
0.095333 -0.114889 0.220000 0 0 0 0
0.097778 -0.114889 0.220000 0 0 0 0
0.100222 -0.114889 0.220000 0 0 0 0
0.102200 -0.114367 0.219000 0 0 0 0
0.104633 -0.114367 0.219000 0 0 0 0
0.107067 -0.114367 0.219000 0 0 0 0
0.109500 -0.114367 0.219000 0 0 0 0
0.111933 -0.114367 0.219000 0 0 0 0
0.114367 -0.114367 0.219000 0 0 0 0
0.116267 -0.113844 0.218000 0 0 0 0
0.118689 -0.113844 0.218000 0 0 0 0
0.121111 -0.113844 0.218000 0 0 0 0
0.123533 -0.113844 0.218000 0 0 0 0
0.125378 -0.113322 0.217000 0 0 0 0
0.127789 -0.113322 0.217000 0 0 0 0
0.130200 -0.113322 0.217000 0 0 0 0
0.132000 -0.112800 0.216000 0 0 0 0
0.134400 -0.112800 0.216000 0 0 0 0
0.136167 -0.112278 0.215000 0 0 0 0
0.138556 -0.112278 0.215000 0 0 0 0
0.140289 -0.111756 0.214000 0 0 0 0
0.142667 -0.111756 0.214000 0 0 0 0
0.144367 -0.111233 0.213000 0 0 0 0
0.146044 -0.110711 0.212000 0 0 0 0
0.147700 -0.110189 0.211000 0 0 0 0
0.149333 -0.109667 0.210000 0 0 0 0
0.150222 -0.108622 0.208000 0 0 0 0
0.151800 -0.108100 0.207000 0 0 0 0
0.152611 -0.107056 0.205000 0 0 0 0
0.152622 -0.105489 0.202000 0 0 0 0
0.152567 -0.103922 0.199000 0 0 0 0
0.152444 -0.102356 0.196000 0 0 0 0
0.144367 -0.095567 0.183000 0 0 0 0
0.110400 -0.072067 0.138000 0 0 0 0
0.106256 -0.068411 0.131000 0 0 0 0
0.047689 -0.030289 0.058000 0 0 0 0
0.041778 -0.120111 0.235000 0 0 0 0
0.044389 -0.120111 0.235000 0 0 0 0
0.046800 -0.119600 0.234000 0 0 0 0
0.049400 -0.119600 0.234000 0 0 0 0
0.051778 -0.119089 0.233000 0 0 0 0
0.054133 -0.118578 0.232000 0 0 0 0
0.056467 -0.118067 0.231000 0 0 0 0
0.058778 -0.117556 0.230000 0 0 0 0
0.061333 -0.117556 0.230000 0 0 0 0
0.063611 -0.117044 0.229000 0 0 0 0
0.066156 -0.117044 0.229000 0 0 0 0
0.068700 -0.117044 0.229000 0 0 0 0
0.070933 -0.116533 0.228000 0 0 0 0
0.073467 -0.116533 0.228000 0 0 0 0
0.076000 -0.116533 0.228000 0 0 0 0
0.078189 -0.116022 0.227000 0 0 0 0
0.080356 -0.115511 0.226000 0 0 0 0
0.082867 -0.115511 0.226000 0 0 0 0
0.085000 -0.115000 0.225000 0 0 0 0
0.086722 -0.113978 0.223000 0 0 0 0
0.088800 -0.113467 0.222000 0 0 0 0
0.090856 -0.112956 0.221000 0 0 0 0
0.093311 -0.112956 0.221000 0 0 0 0
0.095333 -0.112444 0.220000 0 0 0 0
0.097778 -0.112444 0.220000 0 0 0 0
0.100222 -0.112444 0.220000 0 0 0 0
0.102200 -0.111933 0.219000 0 0 0 0
0.104633 -0.111933 0.219000 0 0 0 0
0.107067 -0.111933 0.219000 0 0 0 0
0.109500 -0.111933 0.219000 0 0 0 0
0.111933 -0.111933 0.219000 0 0 0 0
0.114367 -0.111933 0.219000 0 0 0 0
0.116267 -0.111422 0.218000 0 0 0 0
0.118689 -0.111422 0.218000 0 0 0 0
0.121111 -0.111422 0.218000 0 0 0 0
0.123533 -0.111422 0.218000 0 0 0 0
0.125378 -0.110911 0.217000 0 0 0 0
0.127789 -0.110911 0.217000 0 0 0 0
0.130200 -0.110911 0.217000 0 0 0 0
0.132000 -0.110400 0.216000 0 0 0 0
0.134400 -0.110400 0.216000 0 0 0 0
0.136167 -0.109889 0.215000 0 0 0 0
0.138556 -0.109889 0.215000 0 0 0 0
0.140289 -0.109378 0.214000 0 0 0 0
0.142667 -0.109378 0.214000 0 0 0 0
0.144367 -0.108867 0.213000 0 0 0 0
0.146044 -0.108356 0.212000 0 0 0 0
0.147700 -0.107844 0.211000 0 0 0 0
0.149333 -0.107333 0.210000 0 0 0 0
0.150222 -0.106311 0.208000 0 0 0 0
0.151067 -0.105289 0.206000 0 0 0 0
0.151867 -0.104267 0.204000 0 0 0 0
0.151867 -0.102733 0.201000 0 0 0 0
0.151800 -0.101200 0.198000 0 0 0 0
0.151667 -0.099667 0.195000 0 0 0 0
0.138056 -0.089444 0.175000 0 0 0 0
0.107200 -0.068489 0.134000 0 0 0 0
0.096522 -0.060822 0.119000 0 0 0 0
0.046600 -0.116500 0.233000 0 0 0 0
0.048978 -0.116000 0.232000 0 0 0 0
0.051556 -0.116000 0.232000 0 0 0 0
0.053900 -0.115500 0.231000 0 0 0 0
0.056222 -0.115000 0.230000 0 0 0 0
0.058778 -0.115000 0.230000 0 0 0 0
0.061067 -0.114500 0.229000 0 0 0 0
0.063611 -0.114500 0.229000 0 0 0 0
0.066156 -0.114500 0.229000 0 0 0 0
0.068700 -0.114500 0.229000 0 0 0 0
0.070933 -0.114000 0.228000 0 0 0 0
0.073467 -0.114000 0.228000 0 0 0 0
0.075667 -0.113500 0.227000 0 0 0 0
0.077844 -0.113000 0.226000 0 0 0 0
0.080356 -0.113000 0.226000 0 0 0 0
0.082500 -0.112500 0.225000 0 0 0 0
0.084622 -0.112000 0.224000 0 0 0 0
0.086722 -0.111500 0.223000 0 0 0 0
0.088800 -0.111000 0.222000 0 0 0 0
0.090856 -0.110500 0.221000 0 0 0 0
0.093311 -0.110500 0.221000 0 0 0 0
0.095333 -0.110000 0.220000 0 0 0 0
0.097778 -0.110000 0.220000 0 0 0 0
0.100222 -0.110000 0.220000 0 0 0 0
0.102667 -0.110000 0.220000 0 0 0 0
0.104633 -0.109500 0.219000 0 0 0 0
0.107067 -0.109500 0.219000 0 0 0 0
0.109500 -0.109500 0.219000 0 0 0 0
0.111933 -0.109500 0.219000 0 0 0 0
0.114367 -0.109500 0.219000 0 0 0 0
0.116267 -0.109000 0.218000 0 0 0 0
0.118689 -0.109000 0.218000 0 0 0 0
0.121111 -0.109000 0.218000 0 0 0 0
0.123533 -0.109000 0.218000 0 0 0 0
0.125378 -0.108500 0.217000 0 0 0 0
0.127789 -0.108500 0.217000 0 0 0 0
0.130200 -0.108500 0.217000 0 0 0 0
0.132000 -0.108000 0.216000 0 0 0 0
0.134400 -0.108000 0.216000 0 0 0 0
0.136167 -0.107500 0.215000 0 0 0 0
0.138556 -0.107500 0.215000 0 0 0 0
0.140289 -0.107000 0.214000 0 0 0 0
0.142667 -0.107000 0.214000 0 0 0 0
0.144367 -0.106500 0.213000 0 0 0 0
0.146044 -0.106000 0.212000 0 0 0 0
0.147700 -0.105500 0.211000 0 0 0 0
0.148622 -0.104500 0.209000 0 0 0 0
0.150222 -0.104000 0.208000 0 0 0 0
0.151067 -0.103000 0.206000 0 0 0 0
0.151122 -0.101500 0.203000 0 0 0 0
0.151111 -0.100000 0.200000 0 0 0 0
0.151800 -0.099000 0.198000 0 0 0 0
0.150889 -0.097000 0.194000 0 0 0 0
0.131744 -0.083500 0.167000 0 0 0 0
0.107200 -0.067000 0.134000 0 0 0 0
0.078678 -0.048500 0.097000 0 0 0 0
0.048767 -0.112933 0.231000 0 0 0 0
0.051333 -0.112933 0.231000 0 0 0 0
0.053667 -0.112444 0.230000 0 0 0 0
0.056222 -0.112444 0.230000 0 0 0 0
0.058778 -0.112444 0.230000 0 0 0 0
0.061067 -0.111956 0.229000 0 0 0 0
0.063611 -0.111956 0.229000 0 0 0 0
0.066156 -0.111956 0.229000 0 0 0 0
0.068400 -0.111467 0.228000 0 0 0 0
0.070933 -0.111467 0.228000 0 0 0 0
0.073467 -0.111467 0.228000 0 0 0 0
0.075667 -0.110978 0.227000 0 0 0 0
0.077844 -0.110489 0.226000 0 0 0 0
0.080356 -0.110489 0.226000 0 0 0 0
0.082500 -0.110000 0.225000 0 0 0 0
0.084622 -0.109511 0.224000 0 0 0 0
0.086722 -0.109022 0.223000 0 0 0 0
0.088800 -0.108533 0.222000 0 0 0 0
0.091267 -0.108533 0.222000 0 0 0 0
0.093311 -0.108044 0.221000 0 0 0 0
0.095767 -0.108044 0.221000 0 0 0 0
0.097778 -0.107556 0.220000 0 0 0 0
0.100222 -0.107556 0.220000 0 0 0 0
0.102667 -0.107556 0.220000 0 0 0 0
0.104633 -0.107067 0.219000 0 0 0 0
0.107067 -0.107067 0.219000 0 0 0 0
0.109500 -0.107067 0.219000 0 0 0 0
0.111933 -0.107067 0.219000 0 0 0 0
0.114367 -0.107067 0.219000 0 0 0 0
0.116267 -0.106578 0.218000 0 0 0 0
0.118689 -0.106578 0.218000 0 0 0 0
0.121111 -0.106578 0.218000 0 0 0 0
0.123533 -0.106578 0.218000 0 0 0 0
0.125378 -0.106089 0.217000 0 0 0 0
0.127789 -0.106089 0.217000 0 0 0 0
0.129600 -0.105600 0.216000 0 0 0 0
0.132000 -0.105600 0.216000 0 0 0 0
0.134400 -0.105600 0.216000 0 0 0 0
0.136167 -0.105111 0.215000 0 0 0 0
0.138556 -0.105111 0.215000 0 0 0 0
0.140289 -0.104622 0.214000 0 0 0 0
0.142667 -0.104622 0.214000 0 0 0 0
0.144367 -0.104133 0.213000 0 0 0 0
0.146044 -0.103644 0.212000 0 0 0 0
0.147700 -0.103156 0.211000 0 0 0 0
0.148622 -0.102178 0.209000 0 0 0 0
0.150222 -0.101689 0.208000 0 0 0 0
0.151067 -0.100711 0.206000 0 0 0 0
0.151122 -0.099244 0.203000 0 0 0 0
0.151111 -0.097778 0.200000 0 0 0 0
0.151033 -0.096311 0.197000 0 0 0 0
0.150111 -0.094356 0.193000 0 0 0 0
0.123067 -0.076267 0.156000 0 0 0 0
0.107200 -0.065511 0.134000 0 0 0 0
0.055967 -0.033733 0.069000 0 0 0 0
0.053667 -0.109889 0.230000 0 0 0 0
0.056222 -0.109889 0.230000 0 0 0 0
0.058778 -0.109889 0.230000 0 0 0 0
0.061067 -0.109411 0.229000 0 0 0 0
0.063611 -0.109411 0.229000 0 0 0 0
0.066156 -0.109411 0.229000 0 0 0 0
0.068400 -0.108933 0.228000 0 0 0 0
0.070933 -0.108933 0.228000 0 0 0 0
0.073144 -0.108456 0.227000 0 0 0 0
0.075667 -0.108456 0.227000 0 0 0 0
0.077844 -0.107978 0.226000 0 0 0 0
0.080356 -0.107978 0.226000 0 0 0 0
0.082500 -0.107500 0.225000 0 0 0 0
0.084622 -0.107022 0.224000 0 0 0 0
0.086722 -0.106544 0.223000 0 0 0 0
0.088800 -0.106067 0.222000 0 0 0 0
0.091267 -0.106067 0.222000 0 0 0 0
0.093311 -0.105589 0.221000 0 0 0 0
0.095767 -0.105589 0.221000 0 0 0 0
0.097778 -0.105111 0.220000 0 0 0 0
0.100222 -0.105111 0.220000 0 0 0 0
0.102667 -0.105111 0.220000 0 0 0 0
0.105111 -0.105111 0.220000 0 0 0 0
0.107067 -0.104633 0.219000 0 0 0 0
0.109500 -0.104633 0.219000 0 0 0 0
0.111933 -0.104633 0.219000 0 0 0 0
0.114367 -0.104633 0.219000 0 0 0 0
0.116267 -0.104156 0.218000 0 0 0 0
0.118689 -0.104156 0.218000 0 0 0 0
0.121111 -0.104156 0.218000 0 0 0 0
0.123533 -0.104156 0.218000 0 0 0 0
0.125378 -0.103678 0.217000 0 0 0 0
0.127789 -0.103678 0.217000 0 0 0 0
0.130200 -0.103678 0.217000 0 0 0 0
0.132000 -0.103200 0.216000 0 0 0 0
0.134400 -0.103200 0.216000 0 0 0 0
0.136167 -0.102722 0.215000 0 0 0 0
0.138556 -0.102722 0.215000 0 0 0 0
0.140289 -0.102244 0.214000 0 0 0 0
0.142667 -0.102244 0.214000 0 0 0 0
0.144367 -0.101767 0.213000 0 0 0 0
0.146044 -0.101289 0.212000 0 0 0 0
0.147000 -0.100333 0.210000 0 0 0 0
0.148622 -0.099856 0.209000 0 0 0 0
0.149500 -0.098900 0.207000 0 0 0 0
0.150333 -0.097944 0.205000 0 0 0 0
0.150378 -0.096511 0.202000 0 0 0 0
0.150356 -0.095078 0.199000 0 0 0 0
0.150267 -0.093644 0.196000 0 0 0 0
0.147778 -0.090778 0.190000 0 0 0 0
0.116756 -0.070711 0.148000 0 0 0 0
0.097600 -0.058289 0.122000 0 0 0 0
0.014600 -0.008600 0.018000 0 0 0 0
0.058778 -0.107333 0.230000 0 0 0 0
0.061067 -0.106867 0.229000 0 0 0 0
0.063611 -0.106867 0.229000 0 0 0 0
0.066156 -0.106867 0.229000 0 0 0 0
0.068400 -0.106400 0.228000 0 0 0 0
0.070933 -0.106400 0.228000 0 0 0 0
0.073144 -0.105933 0.227000 0 0 0 0
0.075667 -0.105933 0.227000 0 0 0 0
0.077844 -0.105467 0.226000 0 0 0 0
0.080356 -0.105467 0.226000 0 0 0 0
0.082500 -0.105000 0.225000 0 0 0 0
0.084622 -0.104533 0.224000 0 0 0 0
0.086722 -0.104067 0.223000 0 0 0 0
0.089200 -0.104067 0.223000 0 0 0 0
0.091267 -0.103600 0.222000 0 0 0 0
0.093311 -0.103133 0.221000 0 0 0 0
0.095767 -0.103133 0.221000 0 0 0 0
0.098222 -0.103133 0.221000 0 0 0 0
0.100222 -0.102667 0.220000 0 0 0 0
0.102667 -0.102667 0.220000 0 0 0 0
0.105111 -0.102667 0.220000 0 0 0 0
0.107067 -0.102200 0.219000 0 0 0 0
0.109500 -0.102200 0.219000 0 0 0 0
0.111933 -0.102200 0.219000 0 0 0 0
0.114367 -0.102200 0.219000 0 0 0 0
0.116267 -0.101733 0.218000 0 0 0 0
0.118689 -0.101733 0.218000 0 0 0 0
0.121111 -0.101733 0.218000 0 0 0 0
0.123533 -0.101733 0.218000 0 0 0 0
0.125378 -0.101267 0.217000 0 0 0 0
0.127789 -0.101267 0.217000 0 0 0 0
0.130200 -0.101267 0.217000 0 0 0 0
0.132000 -0.100800 0.216000 0 0 0 0
0.134400 -0.100800 0.216000 0 0 0 0
0.136167 -0.100333 0.215000 0 0 0 0
0.138556 -0.100333 0.215000 0 0 0 0
0.140289 -0.099867 0.214000 0 0 0 0
0.142000 -0.099400 0.213000 0 0 0 0
0.143689 -0.098933 0.212000 0 0 0 0
0.145356 -0.098467 0.211000 0 0 0 0
0.147000 -0.098000 0.210000 0 0 0 0
0.147911 -0.097067 0.208000 0 0 0 0
0.149500 -0.096600 0.207000 0 0 0 0
0.149600 -0.095200 0.204000 0 0 0 0
0.149633 -0.093800 0.201000 0 0 0 0
0.150356 -0.092867 0.199000 0 0 0 0
0.150267 -0.091467 0.196000 0 0 0 0
0.144667 -0.086800 0.186000 0 0 0 0
0.110444 -0.065333 0.140000 0 0 0 0
0.044800 -0.026133 0.056000 0 0 0 0
0.063611 -0.104322 0.229000 0 0 0 0
0.066156 -0.104322 0.229000 0 0 0 0
0.068700 -0.104322 0.229000 0 0 0 0
0.070933 -0.103867 0.228000 0 0 0 0
0.073467 -0.103867 0.228000 0 0 0 0
0.075667 -0.103411 0.227000 0 0 0 0
0.077844 -0.102956 0.226000 0 0 0 0
0.080356 -0.102956 0.226000 0 0 0 0
0.082500 -0.102500 0.225000 0 0 0 0
0.084622 -0.102044 0.224000 0 0 0 0
0.087111 -0.102044 0.224000 0 0 0 0
0.089200 -0.101589 0.223000 0 0 0 0
0.091267 -0.101133 0.222000 0 0 0 0
0.093733 -0.101133 0.222000 0 0 0 0
0.095767 -0.100678 0.221000 0 0 0 0
0.098222 -0.100678 0.221000 0 0 0 0
0.100222 -0.100222 0.220000 0 0 0 0
0.102667 -0.100222 0.220000 0 0 0 0
0.105111 -0.100222 0.220000 0 0 0 0
0.107067 -0.099767 0.219000 0 0 0 0
0.109500 -0.099767 0.219000 0 0 0 0
0.111933 -0.099767 0.219000 0 0 0 0
0.114367 -0.099767 0.219000 0 0 0 0
0.116267 -0.099311 0.218000 0 0 0 0
0.118689 -0.099311 0.218000 0 0 0 0
0.121111 -0.099311 0.218000 0 0 0 0
0.123533 -0.099311 0.218000 0 0 0 0
0.125378 -0.098856 0.217000 0 0 0 0
0.127789 -0.098856 0.217000 0 0 0 0
0.130200 -0.098856 0.217000 0 0 0 0
0.132000 -0.098400 0.216000 0 0 0 0
0.134400 -0.098400 0.216000 0 0 0 0
0.136167 -0.097944 0.215000 0 0 0 0
0.138556 -0.097944 0.215000 0 0 0 0
0.140289 -0.097489 0.214000 0 0 0 0
0.142000 -0.097033 0.213000 0 0 0 0
0.143689 -0.096578 0.212000 0 0 0 0
0.145356 -0.096122 0.211000 0 0 0 0
0.147000 -0.095667 0.210000 0 0 0 0
0.147911 -0.094756 0.208000 0 0 0 0
0.148778 -0.093844 0.206000 0 0 0 0
0.149600 -0.092933 0.204000 0 0 0 0
0.149633 -0.091567 0.201000 0 0 0 0
0.149600 -0.090200 0.198000 0 0 0 0
0.149500 -0.088833 0.195000 0 0 0 0
0.141556 -0.082911 0.182000 0 0 0 0
0.095456 -0.055122 0.121000 0 0 0 0
0.004800 -0.002733 0.006000 0 0 0 0
0.066156 -0.101778 0.229000 0 0 0 0
0.068700 -0.101778 0.229000 0 0 0 0
0.070933 -0.101333 0.228000 0 0 0 0
0.073467 -0.101333 0.228000 0 0 0 0
0.075667 -0.100889 0.227000 0 0 0 0
0.077844 -0.100444 0.226000 0 0 0 0
0.080356 -0.100444 0.226000 0 0 0 0
0.082500 -0.100000 0.225000 0 0 0 0
0.085000 -0.100000 0.225000 0 0 0 0
0.087111 -0.099556 0.224000 0 0 0 0
0.089200 -0.099111 0.223000 0 0 0 0
0.091678 -0.099111 0.223000 0 0 0 0
0.093733 -0.098667 0.222000 0 0 0 0
0.095767 -0.098222 0.221000 0 0 0 0
0.098222 -0.098222 0.221000 0 0 0 0
0.100678 -0.098222 0.221000 0 0 0 0
0.102667 -0.097778 0.220000 0 0 0 0
0.105111 -0.097778 0.220000 0 0 0 0
0.107556 -0.097778 0.220000 0 0 0 0
0.109500 -0.097333 0.219000 0 0 0 0
0.111933 -0.097333 0.219000 0 0 0 0
0.114367 -0.097333 0.219000 0 0 0 0
0.116800 -0.097333 0.219000 0 0 0 0
0.118689 -0.096889 0.218000 0 0 0 0
0.121111 -0.096889 0.218000 0 0 0 0
0.123533 -0.096889 0.218000 0 0 0 0
0.125378 -0.096444 0.217000 0 0 0 0
0.127789 -0.096444 0.217000 0 0 0 0
0.130200 -0.096444 0.217000 0 0 0 0
0.132000 -0.096000 0.216000 0 0 0 0
0.133778 -0.095556 0.215000 0 0 0 0
0.136167 -0.095556 0.215000 0 0 0 0
0.137911 -0.095111 0.214000 0 0 0 0
0.140289 -0.095111 0.214000 0 0 0 0
0.142000 -0.094667 0.213000 0 0 0 0
0.143689 -0.094222 0.212000 0 0 0 0
0.145356 -0.093778 0.211000 0 0 0 0
0.146300 -0.092889 0.209000 0 0 0 0
0.147911 -0.092444 0.208000 0 0 0 0
0.148778 -0.091556 0.206000 0 0 0 0
0.148867 -0.090222 0.203000 0 0 0 0
0.148889 -0.088889 0.200000 0 0 0 0
0.148844 -0.087556 0.197000 0 0 0 0
0.148733 -0.086222 0.194000 0 0 0 0
0.135333 -0.077333 0.174000 0 0 0 0
0.104133 -0.058667 0.132000 0 0 0 0
0.013600 -0.007556 0.017000 0 0 0 0
0.070933 -0.098800 0.228000 0 0 0 0
0.073467 -0.098800 0.228000 0 0 0 0
0.075667 -0.098367 0.227000 0 0 0 0
0.078189 -0.098367 0.227000 0 0 0 0
0.080356 -0.097933 0.226000 0 0 0 0
0.082500 -0.097500 0.225000 0 0 0 0
0.085000 -0.097500 0.225000 0 0 0 0
0.087111 -0.097067 0.224000 0 0 0 0
0.089200 -0.096633 0.223000 0 0 0 0
0.091678 -0.096633 0.223000 0 0 0 0
0.093733 -0.096200 0.222000 0 0 0 0
0.096200 -0.096200 0.222000 0 0 0 0
0.098222 -0.095767 0.221000 0 0 0 0
0.100678 -0.095767 0.221000 0 0 0 0
0.102667 -0.095333 0.220000 0 0 0 0
0.105111 -0.095333 0.220000 0 0 0 0
0.107556 -0.095333 0.220000 0 0 0 0
0.109500 -0.094900 0.219000 0 0 0 0
0.111933 -0.094900 0.219000 0 0 0 0
0.114367 -0.094900 0.219000 0 0 0 0
0.116800 -0.094900 0.219000 0 0 0 0
0.118689 -0.094467 0.218000 0 0 0 0
0.121111 -0.094467 0.218000 0 0 0 0
0.123533 -0.094467 0.218000 0 0 0 0
0.125378 -0.094033 0.217000 0 0 0 0
0.127789 -0.094033 0.217000 0 0 0 0
0.130200 -0.094033 0.217000 0 0 0 0
0.132000 -0.093600 0.216000 0 0 0 0
0.133778 -0.093167 0.215000 0 0 0 0
0.136167 -0.093167 0.215000 0 0 0 0
0.137911 -0.092733 0.214000 0 0 0 0
0.139633 -0.092300 0.213000 0 0 0 0
0.142000 -0.092300 0.213000 0 0 0 0
0.143689 -0.091867 0.212000 0 0 0 0
0.144667 -0.091000 0.210000 0 0 0 0
0.146300 -0.090567 0.209000 0 0 0 0
0.147200 -0.089700 0.207000 0 0 0 0
0.148056 -0.088833 0.205000 0 0 0 0
0.148133 -0.087533 0.202000 0 0 0 0
0.148889 -0.086667 0.200000 0 0 0 0
0.148844 -0.085367 0.197000 0 0 0 0
0.147967 -0.083633 0.193000 0 0 0 0
0.131444 -0.073233 0.169000 0 0 0 0
0.108078 -0.059367 0.137000 0 0 0 0
0.014400 -0.007800 0.018000 0 0 0 0
0.075667 -0.095844 0.227000 0 0 0 0
0.078189 -0.095844 0.227000 0 0 0 0
0.080356 -0.095422 0.226000 0 0 0 0
0.082867 -0.095422 0.226000 0 0 0 0
0.085000 -0.095000 0.225000 0 0 0 0
0.087500 -0.095000 0.225000 0 0 0 0
0.089600 -0.094578 0.224000 0 0 0 0
0.091678 -0.094156 0.223000 0 0 0 0
0.094156 -0.094156 0.223000 0 0 0 0
0.096200 -0.093733 0.222000 0 0 0 0
0.098667 -0.093733 0.222000 0 0 0 0
0.100678 -0.093311 0.221000 0 0 0 0
0.103133 -0.093311 0.221000 0 0 0 0
0.105111 -0.092889 0.220000 0 0 0 0
0.107556 -0.092889 0.220000 0 0 0 0
0.110000 -0.092889 0.220000 0 0 0 0
0.111933 -0.092467 0.219000 0 0 0 0
0.114367 -0.092467 0.219000 0 0 0 0
0.116800 -0.092467 0.219000 0 0 0 0
0.118689 -0.092044 0.218000 0 0 0 0
0.121111 -0.092044 0.218000 0 0 0 0
0.123533 -0.092044 0.218000 0 0 0 0
0.125378 -0.091622 0.217000 0 0 0 0
0.127789 -0.091622 0.217000 0 0 0 0
0.129600 -0.091200 0.216000 0 0 0 0
0.132000 -0.091200 0.216000 0 0 0 0
0.133778 -0.090778 0.215000 0 0 0 0
0.136167 -0.090778 0.215000 0 0 0 0
0.137911 -0.090356 0.214000 0 0 0 0
0.139633 -0.089933 0.213000 0 0 0 0
0.141333 -0.089511 0.212000 0 0 0 0
0.143011 -0.089089 0.211000 0 0 0 0
0.144667 -0.088667 0.210000 0 0 0 0
0.145600 -0.087822 0.208000 0 0 0 0
0.146489 -0.086978 0.206000 0 0 0 0
0.147333 -0.086133 0.204000 0 0 0 0
0.148133 -0.085289 0.202000 0 0 0 0
0.148144 -0.084022 0.199000 0 0 0 0
0.148089 -0.082756 0.196000 0 0 0 0
0.147200 -0.081067 0.192000 0 0 0 0
0.129889 -0.070511 0.167000 0 0 0 0
0.104133 -0.055733 0.132000 0 0 0 0
0.012800 -0.006756 0.016000 0 0 0 0
0.078189 -0.093322 0.227000 0 0 0 0
0.080711 -0.093322 0.227000 0 0 0 0
0.082867 -0.092911 0.226000 0 0 0 0
0.085000 -0.092500 0.225000 0 0 0 0
0.087500 -0.092500 0.225000 0 0 0 0
0.089600 -0.092089 0.224000 0 0 0 0
0.092089 -0.092089 0.224000 0 0 0 0
0.094156 -0.091678 0.223000 0 0 0 0
0.096200 -0.091267 0.222000 0 0 0 0
0.098667 -0.091267 0.222000 0 0 0 0
0.100678 -0.090856 0.221000 0 0 0 0
0.103133 -0.090856 0.221000 0 0 0 0
0.105111 -0.090444 0.220000 0 0 0 0
0.107556 -0.090444 0.220000 0 0 0 0
0.110000 -0.090444 0.220000 0 0 0 0
0.111933 -0.090033 0.219000 0 0 0 0
0.114367 -0.090033 0.219000 0 0 0 0
0.116800 -0.090033 0.219000 0 0 0 0
0.118689 -0.089622 0.218000 0 0 0 0
0.121111 -0.089622 0.218000 0 0 0 0
0.123533 -0.089622 0.218000 0 0 0 0
0.125378 -0.089211 0.217000 0 0 0 0
0.127789 -0.089211 0.217000 0 0 0 0
0.129600 -0.088800 0.216000 0 0 0 0
0.132000 -0.088800 0.216000 0 0 0 0
0.133778 -0.088389 0.215000 0 0 0 0
0.135533 -0.087978 0.214000 0 0 0 0
0.137911 -0.087978 0.214000 0 0 0 0
0.139633 -0.087567 0.213000 0 0 0 0
0.141333 -0.087156 0.212000 0 0 0 0
0.143011 -0.086744 0.211000 0 0 0 0
0.143978 -0.085922 0.209000 0 0 0 0
0.144900 -0.085100 0.207000 0 0 0 0
0.146489 -0.084689 0.206000 0 0 0 0
0.147333 -0.083867 0.204000 0 0 0 0
0.147400 -0.082633 0.201000 0 0 0 0
0.147400 -0.081400 0.198000 0 0 0 0
0.147333 -0.080167 0.195000 0 0 0 0
0.146433 -0.078522 0.191000 0 0 0 0
0.122889 -0.064956 0.158000 0 0 0 0
0.063900 -0.033300 0.081000 0 0 0 0
0.082867 -0.090400 0.226000 0 0 0 0
0.085378 -0.090400 0.226000 0 0 0 0
0.087500 -0.090000 0.225000 0 0 0 0
0.090000 -0.090000 0.225000 0 0 0 0
0.092089 -0.089600 0.224000 0 0 0 0
0.094156 -0.089200 0.223000 0 0 0 0
0.096633 -0.089200 0.223000 0 0 0 0
0.098667 -0.088800 0.222000 0 0 0 0
0.101133 -0.088800 0.222000 0 0 0 0
0.103133 -0.088400 0.221000 0 0 0 0
0.105589 -0.088400 0.221000 0 0 0 0
0.107556 -0.088000 0.220000 0 0 0 0
0.110000 -0.088000 0.220000 0 0 0 0
0.111933 -0.087600 0.219000 0 0 0 0
0.114367 -0.087600 0.219000 0 0 0 0
0.116800 -0.087600 0.219000 0 0 0 0
0.118689 -0.087200 0.218000 0 0 0 0
0.121111 -0.087200 0.218000 0 0 0 0
0.122967 -0.086800 0.217000 0 0 0 0
0.125378 -0.086800 0.217000 0 0 0 0
0.127200 -0.086400 0.216000 0 0 0 0
0.129600 -0.086400 0.216000 0 0 0 0
0.131389 -0.086000 0.215000 0 0 0 0
0.133778 -0.086000 0.215000 0 0 0 0
0.135533 -0.085600 0.214000 0 0 0 0
0.137267 -0.085200 0.213000 0 0 0 0
0.138978 -0.084800 0.212000 0 0 0 0
0.140667 -0.084400 0.211000 0 0 0 0
0.142333 -0.084000 0.210000 0 0 0 0
0.143978 -0.083600 0.209000 0 0 0 0
0.144900 -0.082800 0.207000 0 0 0 0
0.145778 -0.082000 0.205000 0 0 0 0
0.146611 -0.081200 0.203000 0 0 0 0
0.146667 -0.080000 0.200000 0 0 0 0
0.147400 -0.079200 0.198000 0 0 0 0
0.147333 -0.078000 0.195000 0 0 0 0
0.144133 -0.075200 0.188000 0 0 0 0
0.087889 -0.045200 0.113000 0 0 0 0
0.007889 -0.004000 0.010000 0 0 0 0
0.087500 -0.087500 0.225000 0 0 0 0
0.090000 -0.087500 0.225000 0 0 0 0
0.092089 -0.087111 0.224000 0 0 0 0
0.094578 -0.087111 0.224000 0 0 0 0
0.096633 -0.086722 0.223000 0 0 0 0
0.099111 -0.086722 0.223000 0 0 0 0
0.101133 -0.086333 0.222000 0 0 0 0
0.103133 -0.085944 0.221000 0 0 0 0
0.105589 -0.085944 0.221000 0 0 0 0
0.107556 -0.085556 0.220000 0 0 0 0
0.110000 -0.085556 0.220000 0 0 0 0
0.112444 -0.085556 0.220000 0 0 0 0
0.114367 -0.085167 0.219000 0 0 0 0
0.116800 -0.085167 0.219000 0 0 0 0
0.118689 -0.084778 0.218000 0 0 0 0
0.121111 -0.084778 0.218000 0 0 0 0
0.122967 -0.084389 0.217000 0 0 0 0
0.125378 -0.084389 0.217000 0 0 0 0
0.127200 -0.084000 0.216000 0 0 0 0
0.129600 -0.084000 0.216000 0 0 0 0
0.131389 -0.083611 0.215000 0 0 0 0
0.133156 -0.083222 0.214000 0 0 0 0
0.135533 -0.083222 0.214000 0 0 0 0
0.137267 -0.082833 0.213000 0 0 0 0
0.138978 -0.082444 0.212000 0 0 0 0
0.140667 -0.082056 0.211000 0 0 0 0
0.142333 -0.081667 0.210000 0 0 0 0
0.143289 -0.080889 0.208000 0 0 0 0
0.144200 -0.080111 0.206000 0 0 0 0
0.145778 -0.079722 0.205000 0 0 0 0
0.145889 -0.078556 0.202000 0 0 0 0
0.146667 -0.077778 0.200000 0 0 0 0
0.146656 -0.076611 0.197000 0 0 0 0
0.146578 -0.075444 0.194000 0 0 0 0
0.136467 -0.069222 0.178000 0 0 0 0
0.024111 -0.012056 0.031000 0 0 0 0
0.090000 -0.085000 0.225000 0 0 0 0
0.092500 -0.085000 0.225000 0 0 0 0
0.094578 -0.084622 0.224000 0 0 0 0
0.096633 -0.084244 0.223000 0 0 0 0
0.099111 -0.084244 0.223000 0 0 0 0
0.101133 -0.083867 0.222000 0 0 0 0
0.103600 -0.083867 0.222000 0 0 0 0
0.105589 -0.083489 0.221000 0 0 0 0
0.108044 -0.083489 0.221000 0 0 0 0
0.110000 -0.083111 0.220000 0 0 0 0
0.112444 -0.083111 0.220000 0 0 0 0
0.114367 -0.082733 0.219000 0 0 0 0
0.116800 -0.082733 0.219000 0 0 0 0
0.118689 -0.082356 0.218000 0 0 0 0
0.121111 -0.082356 0.218000 0 0 0 0
0.122967 -0.081978 0.217000 0 0 0 0
0.125378 -0.081978 0.217000 0 0 0 0
0.127200 -0.081600 0.216000 0 0 0 0
0.129000 -0.081222 0.215000 0 0 0 0
0.131389 -0.081222 0.215000 0 0 0 0
0.133156 -0.080844 0.214000 0 0 0 0
0.134900 -0.080467 0.213000 0 0 0 0
0.136622 -0.080089 0.212000 0 0 0 0
0.138978 -0.080089 0.212000 0 0 0 0
0.140000 -0.079333 0.210000 0 0 0 0
0.141656 -0.078956 0.209000 0 0 0 0
0.143289 -0.078578 0.208000 0 0 0 0
0.144200 -0.077822 0.206000 0 0 0 0
0.145067 -0.077067 0.204000 0 0 0 0
0.145889 -0.076311 0.202000 0 0 0 0
0.145933 -0.075178 0.199000 0 0 0 0
0.145911 -0.074044 0.196000 0 0 0 0
0.145822 -0.072911 0.193000 0 0 0 0
0.130333 -0.064222 0.170000 0 0 0 0
0.014778 -0.007178 0.019000 0 0 0 0
0.094578 -0.082133 0.224000 0 0 0 0
0.097067 -0.082133 0.224000 0 0 0 0
0.099111 -0.081767 0.223000 0 0 0 0
0.101133 -0.081400 0.222000 0 0 0 0
0.103600 -0.081400 0.222000 0 0 0 0
0.105589 -0.081033 0.221000 0 0 0 0
0.108044 -0.081033 0.221000 0 0 0 0
0.110000 -0.080667 0.220000 0 0 0 0
0.112444 -0.080667 0.220000 0 0 0 0
0.114367 -0.080300 0.219000 0 0 0 0
0.116800 -0.080300 0.219000 0 0 0 0
0.118689 -0.079933 0.218000 0 0 0 0
0.121111 -0.079933 0.218000 0 0 0 0
0.122967 -0.079567 0.217000 0 0 0 0
0.125378 -0.079567 0.217000 0 0 0 0
0.127200 -0.079200 0.216000 0 0 0 0
0.129000 -0.078833 0.215000 0 0 0 0
0.131389 -0.078833 0.215000 0 0 0 0
0.133156 -0.078467 0.214000 0 0 0 0
0.134900 -0.078100 0.213000 0 0 0 0
0.136622 -0.077733 0.212000 0 0 0 0
0.138322 -0.077367 0.211000 0 0 0 0
0.140000 -0.077000 0.210000 0 0 0 0
0.141656 -0.076633 0.209000 0 0 0 0
0.142600 -0.075900 0.207000 0 0 0 0
0.143500 -0.075167 0.205000 0 0 0 0
0.145067 -0.074800 0.204000 0 0 0 0
0.145167 -0.073700 0.201000 0 0 0 0
0.145933 -0.072967 0.199000 0 0 0 0
0.145911 -0.071867 0.196000 0 0 0 0
0.145822 -0.070767 0.193000 0 0 0 0
0.115767 -0.055367 0.151000 0 0 0 0
0.004667 -0.002200 0.006000 0 0 0 0
0.099111 -0.079289 0.223000 0 0 0 0
0.101133 -0.078933 0.222000 0 0 0 0
0.103600 -0.078933 0.222000 0 0 0 0
0.105589 -0.078578 0.221000 0 0 0 0
0.108044 -0.078578 0.221000 0 0 0 0
0.110000 -0.078222 0.220000 0 0 0 0
0.112444 -0.078222 0.220000 0 0 0 0
0.114367 -0.077867 0.219000 0 0 0 0
0.116800 -0.077867 0.219000 0 0 0 0
0.118689 -0.077511 0.218000 0 0 0 0
0.121111 -0.077511 0.218000 0 0 0 0
0.122967 -0.077156 0.217000 0 0 0 0
0.124800 -0.076800 0.216000 0 0 0 0
0.127200 -0.076800 0.216000 0 0 0 0
0.129000 -0.076444 0.215000 0 0 0 0
0.130778 -0.076089 0.214000 0 0 0 0
0.133156 -0.076089 0.214000 0 0 0 0
0.134900 -0.075733 0.213000 0 0 0 0
0.136622 -0.075378 0.212000 0 0 0 0
0.138322 -0.075022 0.211000 0 0 0 0
0.140000 -0.074667 0.210000 0 0 0 0
0.140978 -0.073956 0.208000 0 0 0 0
0.142600 -0.073600 0.207000 0 0 0 0
0.143500 -0.072889 0.205000 0 0 0 0
0.144356 -0.072178 0.203000 0 0 0 0
0.145167 -0.071467 0.201000 0 0 0 0
0.145200 -0.070400 0.198000 0 0 0 0
0.145911 -0.069689 0.196000 0 0 0 0
0.145067 -0.068267 0.192000 0 0 0 0
0.098900 -0.045867 0.129000 0 0 0 0
0.101133 -0.076467 0.222000 0 0 0 0
0.103600 -0.076467 0.222000 0 0 0 0
0.105589 -0.076122 0.221000 0 0 0 0
0.108044 -0.076122 0.221000 0 0 0 0
0.110000 -0.075778 0.220000 0 0 0 0
0.112444 -0.075778 0.220000 0 0 0 0
0.114367 -0.075433 0.219000 0 0 0 0
0.116800 -0.075433 0.219000 0 0 0 0
0.118689 -0.075089 0.218000 0 0 0 0
0.121111 -0.075089 0.218000 0 0 0 0
0.122967 -0.074744 0.217000 0 0 0 0
0.124800 -0.074400 0.216000 0 0 0 0
0.127200 -0.074400 0.216000 0 0 0 0
0.129000 -0.074056 0.215000 0 0 0 0
0.130778 -0.073711 0.214000 0 0 0 0
0.132533 -0.073367 0.213000 0 0 0 0
0.134267 -0.073022 0.212000 0 0 0 0
0.135978 -0.072678 0.211000 0 0 0 0
0.137667 -0.072333 0.210000 0 0 0 0
0.139333 -0.071989 0.209000 0 0 0 0
0.140978 -0.071644 0.208000 0 0 0 0
0.141911 -0.070956 0.206000 0 0 0 0
0.142800 -0.070267 0.204000 0 0 0 0
0.143644 -0.069578 0.202000 0 0 0 0
0.144444 -0.068889 0.200000 0 0 0 0
0.145200 -0.068200 0.198000 0 0 0 0
0.145167 -0.067167 0.195000 0 0 0 0
0.144311 -0.065789 0.191000 0 0 0 0
0.092000 -0.041333 0.120000 0 0 0 0
0.108044 -0.073667 0.221000 0 0 0 0
0.110000 -0.073333 0.220000 0 0 0 0
0.112444 -0.073333 0.220000 0 0 0 0
0.114367 -0.073000 0.219000 0 0 0 0
0.116800 -0.073000 0.219000 0 0 0 0
0.118689 -0.072667 0.218000 0 0 0 0
0.121111 -0.072667 0.218000 0 0 0 0
0.122967 -0.072333 0.217000 0 0 0 0
0.124800 -0.072000 0.216000 0 0 0 0
0.126611 -0.071667 0.215000 0 0 0 0
0.129000 -0.071667 0.215000 0 0 0 0
0.130778 -0.071333 0.214000 0 0 0 0
0.132533 -0.071000 0.213000 0 0 0 0
0.134267 -0.070667 0.212000 0 0 0 0
0.135978 -0.070333 0.211000 0 0 0 0
0.137667 -0.070000 0.210000 0 0 0 0
0.139333 -0.069667 0.209000 0 0 0 0
0.140300 -0.069000 0.207000 0 0 0 0
0.141911 -0.068667 0.206000 0 0 0 0
0.142800 -0.068000 0.204000 0 0 0 0
0.143644 -0.067333 0.202000 0 0 0 0
0.144444 -0.066667 0.200000 0 0 0 0
0.144467 -0.065667 0.197000 0 0 0 0
0.144422 -0.064667 0.194000 0 0 0 0
0.143556 -0.063333 0.190000 0 0 0 0
0.070533 -0.030667 0.092000 0 0 0 0
0.112444 -0.070889 0.220000 0 0 0 0
0.114367 -0.070567 0.219000 0 0 0 0
0.116800 -0.070567 0.219000 0 0 0 0
0.118689 -0.070244 0.218000 0 0 0 0
0.120556 -0.069922 0.217000 0 0 0 0
0.122967 -0.069922 0.217000 0 0 0 0
0.124800 -0.069600 0.216000 0 0 0 0
0.126611 -0.069278 0.215000 0 0 0 0
0.128400 -0.068956 0.214000 0 0 0 0
0.130778 -0.068956 0.214000 0 0 0 0
0.132533 -0.068633 0.213000 0 0 0 0
0.134267 -0.068311 0.212000 0 0 0 0
0.135978 -0.067989 0.211000 0 0 0 0
0.137667 -0.067667 0.210000 0 0 0 0
0.138667 -0.067022 0.208000 0 0 0 0
0.140300 -0.066700 0.207000 0 0 0 0
0.141222 -0.066056 0.205000 0 0 0 0
0.142100 -0.065411 0.203000 0 0 0 0
0.142933 -0.064767 0.201000 0 0 0 0
0.143722 -0.064122 0.199000 0 0 0 0
0.144467 -0.063478 0.197000 0 0 0 0
0.144422 -0.062511 0.194000 0 0 0 0
0.142800 -0.060900 0.189000 0 0 0 0
0.055200 -0.023200 0.072000 0 0 0 0
0.116267 -0.067822 0.218000 0 0 0 0
0.118689 -0.067822 0.218000 0 0 0 0
0.120556 -0.067511 0.217000 0 0 0 0
0.122400 -0.067200 0.216000 0 0 0 0
0.124800 -0.067200 0.216000 0 0 0 0
0.126611 -0.066889 0.215000 0 0 0 0
0.128400 -0.066578 0.214000 0 0 0 0
0.130167 -0.066267 0.213000 0 0 0 0
0.131911 -0.065956 0.212000 0 0 0 0
0.133633 -0.065644 0.211000 0 0 0 0
0.135333 -0.065333 0.210000 0 0 0 0
0.137011 -0.065022 0.209000 0 0 0 0
0.138667 -0.064711 0.208000 0 0 0 0
0.139622 -0.064089 0.206000 0 0 0 0
0.141222 -0.063778 0.205000 0 0 0 0
0.142100 -0.063156 0.203000 0 0 0 0
0.142933 -0.062533 0.201000 0 0 0 0
0.143722 -0.061911 0.199000 0 0 0 0
0.143733 -0.060978 0.196000 0 0 0 0
0.143678 -0.060044 0.193000 0 0 0 0
0.140533 -0.057867 0.186000 0 0 0 0
0.046000 -0.018667 0.060000 0 0 0 0
0.118689 -0.065400 0.218000 0 0 0 0
0.120556 -0.065100 0.217000 0 0 0 0
0.122400 -0.064800 0.216000 0 0 0 0
0.124222 -0.064500 0.215000 0 0 0 0
0.126611 -0.064500 0.215000 0 0 0 0
0.128400 -0.064200 0.214000 0 0 0 0
0.130167 -0.063900 0.213000 0 0 0 0
0.131911 -0.063600 0.212000 0 0 0 0
0.133633 -0.063300 0.211000 0 0 0 0
0.135333 -0.063000 0.210000 0 0 0 0
0.137011 -0.062700 0.209000 0 0 0 0
0.138667 -0.062400 0.208000 0 0 0 0
0.139622 -0.061800 0.206000 0 0 0 0
0.140533 -0.061200 0.204000 0 0 0 0
0.141400 -0.060600 0.202000 0 0 0 0
0.142222 -0.060000 0.200000 0 0 0 0
0.143000 -0.059400 0.198000 0 0 0 0
0.143733 -0.058800 0.196000 0 0 0 0
0.143678 -0.057900 0.193000 0 0 0 0
0.133733 -0.053100 0.177000 0 0 0 0
0.025300 -0.009900 0.033000 0 0 0 0
0.122400 -0.062400 0.216000 0 0 0 0
0.124222 -0.062111 0.215000 0 0 0 0
0.126022 -0.061822 0.214000 0 0 0 0
0.128400 -0.061822 0.214000 0 0 0 0
0.130167 -0.061533 0.213000 0 0 0 0
0.131911 -0.061244 0.212000 0 0 0 0
0.133633 -0.060956 0.211000 0 0 0 0
0.135333 -0.060667 0.210000 0 0 0 0
0.137011 -0.060378 0.209000 0 0 0 0
0.138000 -0.059800 0.207000 0 0 0 0
0.139622 -0.059511 0.206000 0 0 0 0
0.140533 -0.058933 0.204000 0 0 0 0
0.141400 -0.058356 0.202000 0 0 0 0
0.142222 -0.057778 0.200000 0 0 0 0
0.143000 -0.057200 0.198000 0 0 0 0
0.143733 -0.056622 0.196000 0 0 0 0
0.142933 -0.055467 0.192000 0 0 0 0
0.129956 -0.049689 0.172000 0 0 0 0
0.016100 -0.006067 0.021000 0 0 0 0
0.126022 -0.059444 0.214000 0 0 0 0
0.127800 -0.059167 0.213000 0 0 0 0
0.129556 -0.058889 0.212000 0 0 0 0
0.131911 -0.058889 0.212000 0 0 0 0
0.133000 -0.058333 0.210000 0 0 0 0
0.134689 -0.058056 0.209000 0 0 0 0
0.136356 -0.057778 0.208000 0 0 0 0
0.138000 -0.057500 0.207000 0 0 0 0
0.138944 -0.056944 0.205000 0 0 0 0
0.139844 -0.056389 0.203000 0 0 0 0
0.141400 -0.056111 0.202000 0 0 0 0
0.141511 -0.055278 0.199000 0 0 0 0
0.142278 -0.054722 0.197000 0 0 0 0
0.143000 -0.054167 0.195000 0 0 0 0
0.142933 -0.053333 0.192000 0 0 0 0
0.108800 -0.040000 0.144000 0 0 0 0
0.127800 -0.056800 0.213000 0 0 0 0
0.129556 -0.056533 0.212000 0 0 0 0
0.131289 -0.056267 0.211000 0 0 0 0
0.133000 -0.056000 0.210000 0 0 0 0
0.134689 -0.055733 0.209000 0 0 0 0
