ply
format ascii 1.0
element vertex 314
property float x
property float y
property float z
property uchar red
property uchar green
property uchar blue
property uchar alpha
end_header
-0.053000 -0.240267 0.159000 0 0 0 0
-0.051300 -0.252700 0.171000 0 0 0 0
-0.054133 -0.244533 0.168000 0 0 0 0
-0.047733 -0.258556 0.179000 0 0 0 0
-0.048800 -0.173511 0.122000 0 0 0 0
-0.056778 -0.206022 0.146000 0 0 0 0
-0.047278 -0.161000 0.115000 0 0 0 0
-0.039900 -0.264600 0.189000 0 0 0 0
-0.043867 -0.261111 0.188000 0 0 0 0
-0.049600 -0.256267 0.186000 0 0 0 0
-0.056311 -0.247367 0.181000 0 0 0 0
-0.060500 -0.223667 0.165000 0 0 0 0
-0.034200 -0.108900 0.081000 0 0 0 0
-0.043111 -0.260822 0.194000 0 0 0 0
-0.057556 -0.246667 0.185000 0 0 0 0
-0.066000 -0.218167 0.165000 0 0 0 0
-0.039400 -0.260478 0.197000 0 0 0 0
-0.056700 -0.247800 0.189000 0 0 0 0
-0.070089 -0.215800 0.166000 0 0 0 0
-0.044000 -0.257400 0.198000 0 0 0 0
-0.065422 -0.237156 0.184000 0 0 0 0
-0.031422 -0.260356 0.202000 0 0 0 0
-0.057600 -0.245333 0.192000 0 0 0 0
-0.003733 -0.010133 0.008000 0 0 0 0
-0.052533 -0.249533 0.197000 0 0 0 0
-0.071067 -0.195867 0.156000 0 0 0 0
-0.050856 -0.249856 0.199000 0 0 0 0
-0.075556 -0.211556 0.170000 0 0 0 0
-0.048889 -0.248889 0.200000 0 0 0 0
-0.076078 -0.205967 0.167000 0 0 0 0
-0.051111 -0.246667 0.200000 0 0 0 0
0.053156 -0.256533 0.208000 0 0 0 0
-0.069300 -0.231000 0.189000 0 0 0 0
-0.034167 -0.250556 0.205000 0 0 0 0
0.064711 -0.254222 0.208000 0 0 0 0
-0.065000 -0.236167 0.195000 0 0 0 0
-0.027467 -0.249489 0.206000 0 0 0 0
0.064711 -0.251911 0.208000 0 0 0 0
-0.068622 -0.231600 0.193000 0 0 0 0
-0.031889 -0.246000 0.205000 0 0 0 0
0.053411 -0.250800 0.209000 0 0 0 0
-0.077900 -0.203300 0.171000 0 0 0 0
-0.051622 -0.240156 0.202000 0 0 0 0
-0.011556 -0.247289 0.208000 0 0 0 0
0.071644 -0.247289 0.208000 0 0 0 0
-0.070767 -0.227311 0.193000 0 0 0 0
-0.034333 -0.242622 0.206000 0 0 0 0
0.044333 -0.247333 0.210000 0 0 0 0
0.084689 -0.242622 0.206000 0 0 0 0
-0.062222 -0.233333 0.200000 0 0 0 0
-0.023000 -0.241500 0.207000 0 0 0 0
0.051333 -0.245000 0.210000 0 0 0 0
-0.078833 -0.190667 0.165000 0 0 0 0
-0.056389 -0.234578 0.203000 0 0 0 0
-0.016178 -0.240356 0.208000 0 0 0 0
0.056000 -0.242667 0.210000 0 0 0 0
-0.079333 -0.194556 0.170000 0 0 0 0
-0.054133 -0.232322 0.203000 0 0 0 0
-0.013867 -0.238044 0.208000 0 0 0 0
0.053667 -0.240333 0.210000 0 0 0 0
-0.079333 -0.192667 0.170000 0 0 0 0
-0.054400 -0.231200 0.204000 0 0 0 0
-0.013867 -0.235733 0.208000 0 0 0 0
0.046667 -0.238000 0.210000 0 0 0 0
0.086978 -0.233467 0.206000 0 0 0 0
-0.062844 -0.226689 0.202000 0 0 0 0
-0.023111 -0.233422 0.208000 0 0 0 0
0.035167 -0.236789 0.211000 0 0 0 0
0.076267 -0.233422 0.208000 0 0 0 0
-0.070756 -0.221111 0.199000 0 0 0 0
-0.032200 -0.230000 0.207000 0 0 0 0
0.023444 -0.234444 0.211000 0 0 0 0
0.065022 -0.232222 0.209000 0 0 0 0
-0.077600 -0.213400 0.194000 0 0 0 0
-0.041400 -0.227700 0.207000 0 0 0 0
0.000000 -0.229900 0.209000 0 0 0 0
0.049000 -0.231000 0.210000 0 0 0 0
0.089267 -0.226600 0.206000 0 0 0 0
-0.056944 -0.223222 0.205000 0 0 0 0
-0.016178 -0.226489 0.208000 0 0 0 0
0.028133 -0.229756 0.211000 0 0 0 0
0.069333 -0.226489 0.208000 0 0 0 0
-0.072967 -0.214478 0.199000 0 0 0 0
-0.034667 -0.224178 0.208000 0 0 0 0
0.007000 -0.226333 0.210000 0 0 0 0
0.049000 -0.226333 0.210000 0 0 0 0
0.089700 -0.223100 0.207000 0 0 0 0
-0.054933 -0.219733 0.206000 0 0 0 0
-0.013933 -0.222933 0.209000 0 0 0 0
0.028133 -0.225067 0.211000 0 0 0 0
0.069333 -0.221867 0.208000 0 0 0 0
-0.071467 -0.212167 0.201000 0 0 0 0
-0.032511 -0.220611 0.209000 0 0 0 0
0.009333 -0.221667 0.210000 0 0 0 0
0.051333 -0.221667 0.210000 0 0 0 0
0.092000 -0.218500 0.207000 0 0 0 0
-0.050600 -0.216200 0.207000 0 0 0 0
-0.009289 -0.218289 0.209000 0 0 0 0
0.032978 -0.221422 0.212000 0 0 0 0
0.073956 -0.217244 0.208000 0 0 0 0
-0.063467 -0.210800 0.204000 0 0 0 0
-0.023222 -0.215967 0.209000 0 0 0 0
0.018756 -0.218033 0.211000 0 0 0 0
0.060378 -0.215967 0.209000 0 0 0 0
-0.073333 -0.204444 0.200000 0 0 0 0
-0.035000 -0.214667 0.210000 0 0 0 0
0.007000 -0.214667 0.210000 0 0 0 0
0.049233 -0.215689 0.211000 0 0 0 0
0.090133 -0.212622 0.208000 0 0 0 0
-0.044122 -0.211322 0.209000 0 0 0 0
-0.002322 -0.211322 0.209000 0 0 0 0
0.040044 -0.214356 0.212000 0 0 0 0
0.080889 -0.210311 0.208000 0 0 0 0
-0.050844 -0.208000 0.208000 0 0 0 0
-0.009289 -0.209000 0.209000 0 0 0 0
0.033133 -0.213000 0.213000 0 0 0 0
0.073956 -0.208000 0.208000 0 0 0 0
-0.055467 -0.205689 0.208000 0 0 0 0
-0.014000 -0.207667 0.210000 0 0 0 0
0.028400 -0.210633 0.213000 0 0 0 0
0.069667 -0.206678 0.209000 0 0 0 0
-0.057500 -0.202400 0.207000 0 0 0 0
-0.016333 -0.205333 0.210000 0 0 0 0
0.026033 -0.208267 0.213000 0 0 0 0
0.067344 -0.204356 0.209000 0 0 0 0
-0.057500 -0.200100 0.207000 0 0 0 0
-0.016333 -0.203000 0.210000 0 0 0 0
0.026156 -0.206867 0.214000 0 0 0 0
0.067344 -0.202033 0.209000 0 0 0 0
-0.053156 -0.198756 0.208000 0 0 0 0
-0.011667 -0.200667 0.210000 0 0 0 0
0.031056 -0.205444 0.215000 0 0 0 0
0.071989 -0.199711 0.209000 0 0 0 0
-0.046444 -0.197389 0.209000 0 0 0 0
-0.004667 -0.198333 0.210000 0 0 0 0
0.038222 -0.203056 0.215000 0 0 0 0
0.078956 -0.197389 0.209000 0 0 0 0
-0.037333 -0.196000 0.210000 0 0 0 0
0.004667 -0.196000 0.210000 0 0 0 0
0.047556 -0.199733 0.214000 0 0 0 0
0.088244 -0.195067 0.209000 0 0 0 0
-0.023333 -0.193667 0.210000 0 0 0 0
0.019022 -0.197356 0.214000 0 0 0 0
0.060956 -0.194589 0.211000 0 0 0 0
-0.048767 -0.190422 0.209000 0 0 0 0
-0.007000 -0.191333 0.210000 0 0 0 0
0.036167 -0.197711 0.217000 0 0 0 0
0.076633 -0.190422 0.209000 0 0 0 0
-0.028133 -0.189900 0.211000 0 0 0 0
0.014267 -0.192600 0.214000 0 0 0 0
0.056800 -0.191700 0.213000 0 0 0 0
-0.044333 -0.186667 0.210000 0 0 0 0
-0.002344 -0.187556 0.211000 0 0 0 0
0.041367 -0.194667 0.219000 0 0 0 0
0.081278 -0.185778 0.209000 0 0 0 0
-0.014067 -0.185211 0.211000 0 0 0 0
0.029333 -0.193111 0.220000 0 0 0 0
0.070000 -0.184333 0.210000 0 0 0 0
-0.023444 -0.182867 0.211000 0 0 0 0
0.019378 -0.188933 0.218000 0 0 0 0
0.061533 -0.184600 0.213000 0 0 0 0
-0.025789 -0.180522 0.211000 0 0 0 0
0.016956 -0.186511 0.218000 0 0 0 0
0.059444 -0.183089 0.214000 0 0 0 0
-0.025911 -0.179022 0.212000 0 0 0 0
0.016956 -0.184089 0.218000 0 0 0 0
0.059722 -0.181556 0.215000 0 0 0 0
-0.021200 -0.176667 0.212000 0 0 0 0
0.022100 -0.184167 0.221000 0 0 0 0
0.064200 -0.178333 0.214000 0 0 0 0
-0.018844 -0.174311 0.212000 0 0 0 0
0.024778 -0.183356 0.223000 0 0 0 0
0.066578 -0.175956 0.214000 0 0 0 0
-0.014200 -0.172767 0.213000 0 0 0 0
0.030133 -0.183311 0.226000 0 0 0 0
0.071000 -0.172767 0.213000 0 0 0 0
-0.011833 -0.170400 0.213000 0 0 0 0
0.032789 -0.181600 0.227000 0 0 0 0
0.073711 -0.171200 0.214000 0 0 0 0
-0.014267 -0.168822 0.214000 0 0 0 0
0.030267 -0.179078 0.227000 0 0 0 0
0.071667 -0.169611 0.215000 0 0 0 0
-0.014267 -0.166444 0.214000 0 0 0 0
0.030400 -0.177333 0.228000 0 0 0 0
0.071667 -0.167222 0.215000 0 0 0 0
-0.016644 -0.164067 0.214000 0 0 0 0
0.027989 -0.175567 0.229000 0 0 0 0
0.069600 -0.165600 0.216000 0 0 0 0
-0.023778 -0.161689 0.214000 0 0 0 0
0.020178 -0.171511 0.227000 0 0 0 0
0.063556 -0.166222 0.220000 0 0 0 0
-0.028533 -0.159311 0.214000 0 0 0 0
0.015000 -0.167500 0.225000 0 0 0 0
0.059467 -0.166011 0.223000 0 0 0 0
0.098933 -0.157822 0.212000 0 0 0 0
0.007400 -0.162800 0.222000 0 0 0 0
0.053900 -0.169400 0.231000 0 0 0 0
0.092733 -0.156933 0.214000 0 0 0 0
-0.004844 -0.157444 0.218000 0 0 0 0
0.041600 -0.169000 0.234000 0 0 0 0
0.081600 -0.156000 0.216000 0 0 0 0
-0.014467 -0.154311 0.217000 0 0 0 0
0.031200 -0.166400 0.234000 0 0 0 0
0.072667 -0.155022 0.218000 0 0 0 0
0.113600 -0.151467 0.213000 0 0 0 0
0.020711 -0.163100 0.233000 0 0 0 0
0.065289 -0.158200 0.226000 0 0 0 0
0.104622 -0.149800 0.214000 0 0 0 0
0.004978 -0.154311 0.224000 0 0 0 0
0.052444 -0.162578 0.236000 0 0 0 0
0.091200 -0.148800 0.216000 0 0 0 0
-0.007300 -0.148433 0.219000 0 0 0 0
0.039500 -0.160633 0.237000 0 0 0 0
0.079933 -0.147756 0.218000 0 0 0 0
0.121267 -0.145044 0.214000 0 0 0 0
0.020889 -0.156667 0.235000 0 0 0 0
0.067311 -0.155333 0.233000 0 0 0 0
0.105600 -0.144000 0.216000 0 0 0 0
0.002511 -0.148156 0.226000 0 0 0 0
0.050033 -0.155367 0.237000 0 0 0 0
0.089622 -0.142911 0.218000 0 0 0 0
0.130778 -0.140289 0.214000 0 0 0 0
0.028967 -0.152733 0.237000 0 0 0 0
0.074111 -0.148222 0.230000 0 0 0 0
0.112800 -0.139200 0.216000 0 0 0 0
0.002544 -0.145033 0.229000 0 0 0 0
0.050244 -0.150733 0.238000 0 0 0 0
0.089622 -0.138067 0.218000 0 0 0 0
0.131389 -0.136167 0.215000 0 0 0 0
0.029089 -0.148089 0.238000 0 0 0 0
0.074433 -0.143733 0.231000 0 0 0 0
0.113322 -0.135022 0.217000 0 0 0 0
0.150222 -0.129422 0.208000 0 0 0 0
0.052889 -0.145444 0.238000 0 0 0 0
0.092467 -0.133833 0.219000 0 0 0 0
0.133778 -0.131389 0.215000 0 0 0 0
0.023700 -0.142200 0.237000 0 0 0 0
0.070200 -0.140400 0.234000 0 0 0 0
0.109000 -0.130800 0.218000 0 0 0 0
0.147700 -0.126600 0.211000 0 0 0 0
0.044956 -0.140156 0.238000 0 0 0 0
0.086333 -0.130733 0.222000 0 0 0 0
0.127200 -0.127200 0.216000 0 0 0 0
0.018356 -0.136356 0.236000 0 0 0 0
0.065278 -0.135778 0.235000 0 0 0 0
0.104633 -0.126533 0.219000 0 0 0 0
0.144367 -0.123067 0.213000 0 0 0 0
0.034378 -0.134867 0.238000 0 0 0 0
0.079222 -0.130333 0.230000 0 0 0 0
0.118689 -0.123533 0.218000 0 0 0 0
0.153356 -0.116733 0.206000 0 0 0 0
0.052667 -0.131667 0.237000 0 0 0 0
0.092889 -0.122222 0.220000 0 0 0 0
0.134400 -0.120000 0.216000 0 0 0 0
0.028967 -0.129033 0.237000 0 0 0 0
0.074433 -0.125767 0.231000 0 0 0 0
0.113844 -0.118689 0.218000 0 0 0 0
0.150944 -0.113789 0.209000 0 0 0 0
0.054833 -0.125333 0.235000 0 0 0 0
0.095333 -0.117333 0.220000 0 0 0 0
0.136800 -0.115200 0.216000 0 0 0 0
0.036711 -0.123244 0.236000 0 0 0 0
0.080711 -0.118544 0.227000 0 0 0 0
0.121111 -0.113844 0.218000 0 0 0 0
0.152622 -0.105489 0.202000 0 0 0 0
0.068700 -0.117044 0.229000 0 0 0 0
0.109500 -0.111933 0.219000 0 0 0 0
0.147700 -0.107844 0.211000 0 0 0 0
0.063611 -0.114500 0.229000 0 0 0 0
0.104633 -0.109500 0.219000 0 0 0 0
0.144367 -0.106500 0.213000 0 0 0 0
0.061067 -0.111956 0.229000 0 0 0 0
0.102667 -0.107556 0.220000 0 0 0 0
0.142667 -0.104622 0.214000 0 0 0 0
0.063611 -0.109411 0.229000 0 0 0 0
0.105111 -0.105111 0.220000 0 0 0 0
0.144367 -0.101767 0.213000 0 0 0 0
0.070933 -0.106400 0.228000 0 0 0 0
0.111933 -0.102200 0.219000 0 0 0 0
0.147911 -0.097067 0.208000 0 0 0 0
0.084622 -0.102044 0.224000 0 0 0 0
0.125378 -0.098856 0.217000 0 0 0 0
0.141556 -0.082911 0.182000 0 0 0 0
0.100678 -0.098222 0.221000 0 0 0 0
0.140289 -0.095111 0.214000 0 0 0 0
0.080356 -0.097933 0.226000 0 0 0 0
0.121111 -0.094467 0.218000 0 0 0 0
0.148844 -0.085367 0.197000 0 0 0 0
0.105111 -0.092889 0.220000 0 0 0 0
0.143011 -0.089089 0.211000 0 0 0 0
0.092089 -0.092089 0.224000 0 0 0 0
0.132000 -0.088800 0.216000 0 0 0 0
0.085378 -0.090400 0.226000 0 0 0 0
0.125378 -0.086800 0.217000 0 0 0 0
0.087889 -0.045200 0.113000 0 0 0 0
0.122967 -0.084389 0.217000 0 0 0 0
0.136467 -0.069222 0.178000 0 0 0 0
0.125378 -0.081978 0.217000 0 0 0 0
0.014778 -0.007178 0.019000 0 0 0 0
0.131389 -0.078833 0.215000 0 0 0 0
0.103600 -0.078933 0.222000 0 0 0 0
0.140000 -0.074667 0.210000 0 0 0 0
0.118689 -0.075089 0.218000 0 0 0 0
0.145167 -0.067167 0.195000 0 0 0 0
0.137667 -0.070000 0.210000 0 0 0 0
0.126611 -0.069278 0.215000 0 0 0 0
0.118689 -0.067822 0.218000 0 0 0 0
0.143678 -0.060044 0.193000 0 0 0 0
0.142222 -0.060000 0.200000 0 0 0 0
0.141400 -0.058356 0.202000 0 0 0 0
0.141511 -0.055278 0.199000 0 0 0 0
0.142189 -0.050933 0.191000 0 0 0 0
0.136667 -0.050111 0.205000 0 0 0 0
0.136911 -0.044889 0.202000 0 0 0 0

